# .PCD v0.7 - Point Cloud Data file format
VERSION 0.7
FIELDS x y z rgb
SIZE 4 4 4 4
TYPE F F F F
COUNT 1 1 1 1
WIDTH 1067
HEIGHT 1
VIEWPOINT 0 0 0 1 0 0 0
POINTS 1067
DATA ascii
375.71838 -639.58667 -132.91306 1.2998848e-38
370.99237 -631.5415 -136.30962 1.3090684e-38
368.67368 -627.59442 -141.26624 1.2998488e-38
368.67368 -627.59442 -147.84659 1.3091044e-38
388.47882 -675.21252 290.85995 2.4849506e-39
379.59204 -659.76648 280.14978 2.301281e-39
374.69409 -651.25336 271.33572 2.3012796e-39
368.74655 -640.91602 262.30411 2.5775064e-39
367.57962 -638.88782 255.20119 2.8544632e-39
366.42007 -636.87238 248.14307 3.7796957e-39
367.57962 -638.88782 241.87389 3.4109132e-39
367.57962 -638.88782 235.21025 1.253715e-38
367.57962 -638.88782 228.5466 1.2352758e-38
366.42007 -636.87238 221.57256 3.87189e-39
366.42007 -636.87238 214.92993 3.9640842e-39
366.42007 -636.87238 208.28731 1.2445314e-38
367.57962 -638.88782 201.89201 1.2445314e-38
371.10275 -645.01135 195.91599 1.253715e-38
374.69409 -651.25336 189.82428 1.2445314e-38
377.12717 -655.4823 183.4183 1.2445314e-38
378.35559 -657.61743 176.75452 1.2445316e-38
379.59204 -659.76648 170.04718 9.2188385e-39
379.59204 -659.76648 163.16577 1.2445314e-38
379.59204 -659.76648 156.28436 1.2445674e-38
375.90668 -653.36102 149.15135 1.253751e-38
375.90668 -653.36102 142.33675 1.2629704e-38
375.90668 -653.36102 135.52214 1.2629705e-38
373.48929 -649.1593 128.67398 1.27219e-38
373.48929 -649.1593 121.9032 1.2813737e-38
373.48929 -649.1593 115.13242 1.2814097e-38
374.69409 -651.25336 108.31284 1.2905932e-38
374.69409 -651.25336 101.52023 1.2906292e-38
374.69409 -651.25336 94.727608 1.2998128e-38
373.48929 -649.1593 88.049309 3.3187218e-39
373.48929 -649.1593 81.278526 4.0562826e-39
375.90668 -653.36102 74.190727 3.9640884e-39
378.35559 -657.61743 67.010574 4.4247008e-39
379.59204 -659.76648 59.944595 4.9782291e-39
379.59204 -659.76648 53.063183 4.9778704e-39
378.35559 -657.61743 46.433582 4.0562826e-39
375.90668 -653.36102 40.117714 4.0559239e-39
373.48929 -649.1593 33.88308 4.0562826e-39
371.10275 -645.01135 27.728121 4.0559239e-39
371.10275 -645.01135 21.000607 4.0562826e-39
371.10275 -645.01135 14.273092 4.056284e-39
372.29221 -647.07867 7.1739678 4.0566427e-39
374.69409 -651.25336 -0.36906466 5.1589924e-39
374.69409 -651.25336 -7.161684 8.9346692e-39
374.69409 -651.25336 -13.954304 7.8283272e-39
374.69409 -651.25336 -20.746923 6.8156187e-39
372.29221 -647.07867 -26.571417 3.6013371e-43
371.10275 -645.01135 -32.819508 1.2871361e-39
371.10275 -645.01135 -39.547024 6.4396349e-39
371.10275 -645.01135 -46.274536 8.0037166e-39
371.10275 -645.01135 -53.002052 9.4856906e-39
374.69409 -651.25336 -61.50264 1.2906292e-38
374.69409 -651.25336 -68.295258 1.1427921e-38
373.48929 -649.1593 -74.449371 7.9118797e-39
373.48929 -649.1593 -81.220146 9.4860521e-39
373.48929 -649.1593 -87.990929 1.2906652e-38
374.69409 -651.25336 -95.465736 1.2814457e-38
375.90668 -653.36102 -102.98892 1.2906292e-38
377.12717 -655.4823 -110.56097 1.2906292e-38
377.12717 -655.4823 -117.3977 1.2722261e-38
375.90668 -653.36102 -123.43273 1.2998488e-38
373.48929 -649.1593 -128.6156 1.0970187e-38
366.42007 -636.87238 -130.48654 1.2998847e-38
362.98489 -630.90173 -134.68588 1.2998488e-38
362.98489 -630.90173 -141.26624 1.3090323e-38
362.98489 -630.90173 -147.84659 1.2998488e-38
382.35873 -678.69696 290.85995 2.0246955e-39
371.18591 -658.86493 279.13248 2.1168911e-39
366.42709 -650.41791 270.38797 2.5775064e-39
361.78879 -642.18481 261.86484 2.4853121e-39
360.64749 -640.15894 254.78569 3.3165315e-39
359.5134 -638.14587 247.75107 3.8715298e-39
359.5134 -638.14587 241.12933 3.6875001e-39
359.5134 -638.14587 234.50758 1.0877993e-38
359.5134 -638.14587 227.88585 1.0970191e-38
359.5134 -638.14587 221.26411 3.87189e-39
359.5134 -638.14587 214.64238 4.3328639e-39
359.5134 -638.14587 208.02065 1.2444955e-38
359.5134 -638.14587 201.39891 1.2445314e-38
361.78879 -642.18481 195.22838 1.2629704e-38
362.93732 -644.22345 188.77132 1.2445314e-38
367.60532 -652.50928 182.84019 8.3890778e-39
368.79117 -654.6142 176.23904 1.2537151e-38
368.79117 -654.6142 169.44643 9.3110355e-39
368.79117 -654.6142 162.65379 1.2445674e-38
366.42709 -650.41791 155.65366 1.253751e-38
364.09317 -646.27515 148.74269 1.253751e-38
362.93732 -644.22345 141.97772 1.2629705e-38
362.93732 -644.22345 135.29292 1.27219e-38
362.93732 -644.22345 128.60812 1.2721901e-38
364.09317 -646.27515 121.91833 1.2814097e-38
364.09317 -646.27515 115.21225 1.2906291e-38
364.09317 -646.27515 108.50616 1.2906291e-38
365.25641 -648.3399 101.73078 1.2998128e-38
364.09317 -646.27515 95.093979 1.2998128e-38
364.09317 -646.27515 88.387894 4.1484768e-39
364.09317 -646.27515 81.681801 4.0562826e-39
367.60532 -652.50928 74.507751 8.111412e-39
371.18591 -658.86493 67.193939 8.6649291e-39
372.39499 -661.01105 60.151577 6.2685671e-39
372.39499 -661.01105 53.29258 9.8631093e-39
371.18591 -658.86493 46.683758 7.3745728e-39
367.60532 -652.50928 40.653858 4.056284e-39
364.09317 -646.27515 34.739178 4.0562826e-39
364.09317 -646.27515 28.033089 4.0562826e-39
362.93732 -644.22345 21.651321 4.056284e-39
362.93732 -644.22345 14.96652 4.1484782e-39
362.93732 -644.22345 8.2817202 4.1484782e-39
365.25641 -648.3399 0.81806374 4.1462922e-39
365.25641 -648.3399 -5.9094505 8.7506381e-39
365.25641 -648.3399 -12.636965 8.749922e-39
364.09317 -646.27515 -18.909534 7.2762381e-39
361.78879 -642.18481 -24.67193 2.7622676e-40
361.78879 -642.18481 -31.335577 1.8381477e-39
361.78879 -642.18481 -37.999222 5.8875429e-39
361.78879 -642.18481 -44.662868 8.0037166e-39
361.78879 -642.18481 -51.326511 8.0055186e-39
362.93732 -644.22345 -58.56628 1.1708112e-38
362.93732 -644.22345 -65.251076 1.1891782e-38
362.93732 -644.22345 -71.935883 7.8189652e-39
362.93732 -644.22345 -78.620682 8.2839062e-39
362.93732 -644.22345 -85.305481 1.3183958e-38
362.93732 -644.22345 -91.99028 1.2998488e-38
367.60532 -652.50928 -101.53249 1.2906292e-38
367.60532 -652.50928 -108.30326 1.2906652e-38
367.60532 -652.50928 -115.07404 1.1892142e-38
367.60532 -652.50928 -121.84482 1.1799946e-38
362.93732 -644.22345 -125.41428 9.2188301e-39
359.5134 -638.14587 -129.68788 1.3275075e-38
357.26642 -634.15747 -134.68588 1.3090323e-38
357.26642 -634.15747 -141.26624 1.3090684e-38
357.26642 -634.15747 -147.84659 1.3090684e-38
364.03238 -660.05066 278.62878 2.8537317e-39
355.96838 -645.42926 268.52847 2.5775064e-39
354.84546 -643.39319 261.42831 2.4853121e-39
352.62073 -639.35938 253.96249 3.5016599e-39
352.62073 -639.35938 247.36153 3.8715298e-39
353.72958 -641.37 241.12933 4.3325052e-39
353.72958 -641.37 234.50758 1.0048596e-38
353.72958 -641.37 227.88585 1.0601409e-38
352.62073 -639.35938 220.95761 3.87189e-39
352.62073 -639.35938 214.35663 3.1339718e-39
352.62073 -639.35938 207.75566 1.2445314e-38
352.62073 -639.35938 201.15468 1.253751e-38
353.72958 -641.37 194.77718 1.0324823e-38
354.84546 -643.39319 188.35944 1.2445314e-38
357.09845 -647.47827 182.08652 1.1431168e-38
357.09845 -647.47827 175.40172 1.253787e-38
357.09845 -647.47827 168.71692 7.9281039e-39
355.96838 -645.42926 161.91014 1.253751e-38
354.84546 -643.39319 155.14632 1.2537511e-38
352.62073 -639.35938 148.34685 1.2629705e-38
353.72958 -641.37 141.80328 1.27219e-38
353.72958 -641.37 135.18155 1.2721901e-38
353.72958 -641.37 128.55981 1.2814095e-38
353.72958 -641.37 121.93808 1.2906291e-38
354.84546 -643.39319 115.29057 1.2906291e-38
357.09845 -647.47827 108.55372 1.3090682e-38
357.09845 -647.47827 101.86892 9.7716522e-39
357.09845 -647.47827 95.18412 1.3090322e-38
357.09845 -647.47827 88.499321 3.964087e-39
357.09845 -647.47827 81.814522 4.056284e-39
358.23569 -649.54028 74.975716 1.0784704e-38
362.85809 -657.92145 67.557129 1.105986e-39
365.21432 -662.19366 60.357216 1.3825715e-39
365.21432 -662.19366 53.520489 1.1981817e-39
364.03238 -660.05066 46.932316 1.0601032e-38
359.38022 -651.61548 41.183151 4.056284e-39
357.09845 -647.47827 35.02092 4.056284e-39
355.96838 -645.42926 28.637234 4.056284e-39
354.84546 -643.39319 22.293823 4.1484782e-39
355.96838 -645.42926 15.309943 4.2403151e-39
355.96838 -645.42926 8.6462975 4.2403151e-39
355.96838 -645.42926 1.9826517 4.3314192e-39
357.09845 -647.47827 -5.0878797 8.4744141e-39
357.09845 -647.47827 -11.772679 8.6580851e-39
355.96838 -645.42926 -18.008286 7.8290489e-39
354.84546 -643.39319 -24.20455 6.4464774e-40
353.72958 -641.37 -30.361843 1.4708057e-39
353.72958 -641.37 -36.983578 5.243614e-39
353.72958 -641.37 -43.605316 8.0955521e-39
353.72958 -641.37 -50.227051 7.8193239e-39
354.84546 -643.39319 -57.417671 1.3368351e-38
354.84546 -643.39319 -64.060295 1.1892502e-38
354.84546 -643.39319 -70.702919 7.5416594e-39
354.84546 -643.39319 -77.345543 7.7264094e-39
354.84546 -643.39319 -83.988167 1.3368711e-38
354.84546 -643.39319 -90.630798 1.2998489e-38
357.09845 -647.47827 -98.675079 1.0140788e-38
359.38022 -651.61548 -106.82217 1.2998489e-38
359.38022 -651.61548 -113.54968 1.3182879e-38
359.38022 -651.61548 -120.2772 1.069396e-38
355.96838 -645.42926 -124.62662 9.1266359e-39
352.62073 -639.35938 -128.89423 1.3182879e-38
351.51877 -637.36139 -134.68588 1.3090682e-38
351.51877 -637.36139 -141.26624 1.3090684e-38
351.51877 -637.36139 -147.84659 1.3090684e-38
358.05035 -663.3147 278.62878 2.3012796e-39
350.11887 -648.62097 268.52847 2.4856709e-39
347.91687 -644.54163 260.99454 2.669702e-39
346.82623 -642.52112 253.96249 4.0548351e-39
346.82623 -642.52112 247.36153 3.7796957e-39
346.82623 -642.52112 240.76054 5.2548132e-39
346.82623 -642.52112 234.15956 8.296885e-39
346.82623 -642.52112 227.55859 1.1615556e-38
346.82623 -642.52112 220.95761 3.8718914e-39
345.7424 -640.51324 214.07266 4.3328653e-39
345.7424 -640.51324 207.49232 1.2445316e-38
346.82623 -642.52112 201.15468 1.2629707e-38
346.82623 -642.52112 194.5537 9.587621e-39
347.91687 -644.54163 188.15544 1.2537151e-38
347.91687 -644.54163 181.53371 8.757866e-39
349.0144 -646.57489 175.07419 1.2814097e-38
347.91687 -644.54163 168.29024 8.9422544e-39
346.82623 -642.52112 161.54881 1.253787e-38
345.7424 -640.51324 154.84952 1.2629705e-38
345.7424 -640.51324 148.26917 1.27219e-38
345.7424 -640.51324 141.68881 1.272226e-38
345.7424 -640.51324 135.10847 1.2814097e-38
345.7424 -640.51324 128.52812 1.2906291e-38
345.7424 -640.51324 121.94777 1.2998128e-38
346.82623 -642.52112 115.34196 1.3090323e-38
349.0144 -646.57489 108.64794 1.3090684e-38
349.0144 -646.57489 102.00532 1.1523362e-38
349.0144 -646.57489 95.362694 1.3182878e-38
349.0144 -646.57489 88.72007 3.7796971e-39
349.0144 -646.57489 82.077446 3.9640884e-39
351.23035 -650.68011 75.129723 1.0969094e-38
354.60757 -656.93665 67.915657 1.7517114e-39
356.89536 -661.17493 60.764511 1.3825729e-39
356.89536 -661.17493 53.971889 1.3825715e-39
355.7478 -659.04901 47.424637 1.069251e-38
352.34894 -652.75232 41.445267 4.056284e-39
349.0144 -646.57489 35.579071 4.1481195e-39
349.0144 -646.57489 28.936447 4.1484782e-39
347.91687 -644.54163 22.612043 4.1484782e-39
347.91687 -644.54163 15.990308 4.2403151e-39
347.91687 -644.54163 9.3685722 4.2406753e-39
347.91687 -644.54163 2.7468364 3.5949401e-39
349.0144 -646.57489 -4.2766752 1.0131768e-38
349.0144 -646.57489 -10.9193 8.7506423e-39
347.91687 -644.54163 -17.118372 7.736496e-39
347.91687 -644.54163 -23.740107 1.4729665e-39
346.82623 -642.52112 -29.879555 1.2871347e-39
346.82623 -642.52112 -36.480534 4.5989677e-39
346.82623 -642.52112 -43.081512 8.0959108e-39
346.82623 -642.52112 -49.682487 8.0033564e-39
346.82623 -642.52112 -56.283466 1.2999929e-38
347.91687 -644.54163 -63.470524 1.0141147e-38
347.91687 -644.54163 -70.092255 7.8204071e-39
347.91687 -644.54163 -76.713997 7.9111608e-39
346.82623 -642.52112 -82.687378 1.2537511e-38
347.91687 -644.54163 -89.957466 1.2998847e-38
349.0144 -646.57489 -97.273422 9.8645596e-39
351.23035 -650.68011 -105.35988 1.3091044e-38
352.34894 -652.75232 -112.79478 1.2629707e-38
351.23035 -650.68011 -118.72948 8.3894324e-39
350.11887 -648.62097 -124.62662 1.0786154e-38
346.82623 -642.52112 -128.89423 1.2445674e-38
345.7424 -640.51324 -134.68588 1.2998847e-38
345.7424 -640.51324 -141.26624 1.3090684e-38
350.90347 -664.37445 278.12833 2.3009209e-39
343.15482 -649.70367 268.07092 3.4983795e-39
341.00339 -645.63031 260.56348 3.3143483e-39
339.93774 -643.61273 253.55476 3.7793328e-39
339.93774 -643.61273 246.97441 3.87189e-39
339.93774 -643.61273 240.39407 7.2827443e-39
339.93774 -643.61273 233.81372 9.0340899e-39
339.93774 -643.61273 227.23337 9.8642093e-39
339.93774 -643.61273 220.65302 3.9637254e-39
339.93774 -643.61273 214.07266 5.0700646e-39
339.93774 -643.61273 207.49232 1.2445314e-38
339.93774 -643.61273 200.91197 1.2629347e-38
341.00339 -645.63031 194.5537 1.0140435e-38
341.00339 -645.63031 187.95273 1.253751e-38
341.00339 -645.63031 181.35175 9.6798153e-39
341.00339 -645.63031 174.75076 1.2444957e-38
341.00339 -645.63031 168.14978 8.4816378e-39
339.93774 -643.61273 161.42987 1.2629705e-38
339.93774 -643.61273 154.84952 1.2721901e-38
338.87875 -641.60773 148.19197 1.2721901e-38
339.93774 -643.61273 141.68881 1.2814097e-38
339.93774 -643.61273 135.10847 1.2906291e-38
339.93774 -643.61273 128.52812 1.2998128e-38
339.93774 -643.61273 121.94777 1.2998488e-38
339.93774 -643.61273 115.36742 1.3090682e-38
341.00339 -645.63031 108.74098 1.3090323e-38
342.07571 -647.66058 102.07288 1.1984339e-38
342.07571 -647.66058 95.451141 1.3274713e-38
343.15482 -649.70367 88.72007 4.1484782e-39
343.15482 -649.70367 82.077446 4.1484782e-39
343.15482 -649.70367 75.434822 4.9778718e-39
346.43338 -655.91107 68.269623 9.9553049e-39
348.65408 -660.1156 61.166584 2.4885561e-39
349.77518 -662.23816 54.195415 4.7016058e-39
347.54019 -658.00659 47.910664 1.0139698e-38
344.24075 -651.7597 41.964523 4.056284e-39
342.07571 -647.66058 35.855515 4.056284e-39
342.07571 -647.66058 29.23378 4.1481195e-39
341.00339 -645.63031 22.92827 4.1484796e-39
339.93774 -643.61273 16.662169 4.2403165e-39
339.93774 -643.61273 10.081819 4.2406753e-39
339.93774 -643.61273 3.5014687 3.6871414e-39
341.00339 -645.63031 -3.4756427 9.0268662e-39
341.00339 -645.63031 -10.076621 9.8562654e-39
341.00339 -645.63031 -16.677599 7.829409e-39
341.00339 -645.63031 -23.278578 2.8544562e-39
339.93774 -643.61273 -29.400282 1.2871347e-39
339.93774 -643.61273 -35.980633 3.4025867e-39
339.93774 -643.61273 -42.560982 8.0959108e-39
339.93774 -643.61273 -49.141331 8.0959108e-39
341.00339 -645.63031 -56.283466 1.2629345e-38
341.00339 -645.63031 -62.884445 9.6798097e-39
341.00339 -645.63031 -69.48542 8.6548509e-39
341.00339 -645.63031 -76.086403 8.0033564e-39
341.00339 -645.63031 -82.687378 1.1613754e-38
341.00339 -645.63031 -89.288361 1.2998488e-38
342.07571 -647.66058 -96.579201 9.9563965e-39
343.15482 -649.70367 -103.91605 1.2629707e-38
344.24075 -651.7597 -111.29932 1.2998848e-38
344.24075 -651.7597 -117.96297 8.0202883e-39
343.15482 -649.70367 -123.84392 1.1984337e-38
341.00339 -645.63031 -128.89423 1.1062383e-38
339.93774 -643.61273 -134.68588 1.3090684e-38
341.57733 -661.12164 276.64615 3.2221541e-39
336.2066 -650.72662 267.61627 3.5905751e-39
334.10532 -646.65961 260.13513 3.2225142e-39
334.10532 -646.65961 253.55476 3.8718886e-39
334.10532 -646.65961 246.97441 3.87189e-39
334.10532 -646.65961 240.39407 9.1262884e-39
334.10532 -646.65961 233.81372 7.2827429e-39
334.10532 -646.65961 227.23337 5.0700632e-39
334.10532 -646.65961 220.65302 3.8722501e-39
333.06448 -644.64508 213.79047 1.097019e-38
333.06448 -644.64508 207.23062 1.253751e-38
334.10532 -646.65961 200.91197 1.253751e-38
334.10532 -646.65961 194.33162 1.2905932e-38
334.10532 -646.65961 187.75127 1.2629347e-38
334.10532 -646.65961 181.17091 9.0344487e-39
334.10532 -646.65961 174.59058 1.2998128e-38
334.10532 -646.65961 168.01022 9.8638492e-39
333.06448 -644.64508 161.31168 1.2721901e-38
332.03012 -642.64307 154.65472 1.2814095e-38
332.03012 -642.64307 148.11525 1.2814097e-38
333.06448 -644.64508 141.63213 1.2906291e-38
334.10532 -646.65961 135.10847 1.2998128e-38
334.10532 -646.65961 128.52812 1.2998487e-38
334.10532 -646.65961 121.94777 1.3090323e-38
334.10532 -646.65961 115.36742 1.3090682e-38
334.10532 -646.65961 108.78707 1.3182518e-38
335.15268 -648.68677 102.14001 1.3182876e-38
335.15268 -648.68677 95.539024 1.3182518e-38
335.15268 -648.68677 88.938049 3.6875029e-39
336.2066 -650.72662 82.207664 4.1484782e-39
337.26718 -652.77942 75.434822 4.1484782e-39
337.26718 -652.77942 68.792198 7.7429938e-39
340.4895 -659.01617 61.563534 8.0195779e-39
340.4895 -659.01617 54.857445 7.1901843e-39
338.3345 -654.84515 48.62817 4.1484782e-39
337.26718 -652.77942 42.221699 4.1484782e-39
335.15268 -648.68677 36.130226 4.0562854e-39
334.10532 -646.65961 29.822868 4.1484782e-39
334.10532 -646.65961 23.242519 4.1484796e-39
334.10532 -646.65961 16.662169 4.2406739e-39
334.10532 -646.65961 10.081819 4.2406753e-39
334.10532 -646.65961 3.5014687 3.8718942e-39
334.10532 -646.65961 -3.0788813 7.7372134e-39
334.10532 -646.65961 -9.6592312 9.3034531e-39
334.10532 -646.65961 -16.239582 8.934672e-39
334.10532 -646.65961 -22.819931 3.684214e-39
334.10532 -646.65961 -29.400282 1.3789702e-39
334.10532 -646.65961 -35.980633 2.9426903e-39
334.10532 -646.65961 -42.560982 8.0959108e-39
334.10532 -646.65961 -49.141331 8.0959108e-39
334.10532 -646.65961 -55.72168 1.1613394e-38
334.10532 -646.65961 -62.302032 9.5876126e-39
334.10532 -646.65961 -68.882378 8.5619336e-39
334.10532 -646.65961 -75.46273 8.0037152e-39
334.10532 -646.65961 -82.043083 1.1613396e-38
335.15268 -648.68677 -89.288361 1.2998848e-38
335.15268 -648.68677 -95.889336 1.2998848e-38
336.2066 -650.72662 -103.20094 1.3275076e-38
337.26718 -652.77942 -110.55867 1.2998848e-38
337.26718 -652.77942 -117.20129 9.7720053e-39
336.2066 -650.72662 -123.06615 1.2814097e-38
334.10532 -646.65961 -128.10553 1.0325178e-38
334.10532 -646.65961 -134.68588 1.2998848e-38
335.58655 -664.18262 276.64615 2.9459273e-39
329.27457 -651.69019 267.16446 3.5905751e-39
328.24557 -649.65363 260.13513 3.2221541e-39
328.24557 -649.65363 253.55476 3.8722501e-39
328.24557 -649.65363 246.97441 3.9637268e-39
328.24557 -649.65363 240.39407 1.1062387e-38
327.22299 -647.62982 233.47003 1.2629704e-38
327.22299 -647.62982 226.91017 3.5956632e-39
327.22299 -647.62982 220.35033 3.8722501e-39
326.20679 -645.61853 213.51003 1.1338972e-38
326.20679 -645.61853 206.97055 1.2629347e-38
327.22299 -647.62982 200.67078 1.2537511e-38
328.24557 -649.65363 194.33162 1.2629705e-38
328.24557 -649.65363 187.75127 1.2629705e-38
328.24557 -649.65363 181.17091 1.2721901e-38
327.22299 -647.62982 174.43137 1.2814097e-38
327.22299 -647.62982 167.87152 1.1339331e-38
325.19687 -643.61969 161.07747 1.2814097e-38
324.19318 -641.63324 154.46234 1.2905932e-38
324.19318 -641.63324 147.96323 1.2906292e-38
326.20679 -645.61853 141.57578 1.2998128e-38
327.22299 -647.62982 135.07227 1.3090322e-38
327.22299 -647.62982 128.51242 1.3090682e-38
327.22299 -647.62982 121.95257 1.3090682e-38
327.22299 -647.62982 115.39272 1.3182519e-38
328.24557 -649.65363 108.78707 1.3274713e-38
328.24557 -649.65363 102.20672 1.3182878e-38
328.24557 -649.65363 95.626366 1.3182878e-38
328.24557 -649.65363 89.046021 5.1622616e-39
328.24557 -649.65363 82.465668 4.1484796e-39
328.24557 -649.65363 75.885315 4.1484782e-39
330.31003 -653.7395 68.964195 4.1481195e-39
331.35199 -655.80176 62.14957 4.1484782e-39
332.40057 -657.87708 55.291817 4.1484796e-39
330.31003 -653.7395 49.098988 4.1484782e-39
328.24557 -649.65363 42.98357 4.1484796e-39
328.24557 -649.65363 36.403217 4.1484782e-39
328.24557 -649.65363 29.822868 4.1484796e-39
327.22299 -647.62982 23.55481 4.2406739e-39
327.22299 -647.62982 16.994959 4.2406753e-39
327.22299 -647.62982 10.435109 4.3325094e-39
327.22299 -647.62982 3.8752584 4.056284e-39
327.22299 -647.62982 -2.684592 8.1056316e-39
328.24557 -649.65363 -9.6592312 7.9212445e-39
328.24557 -649.65363 -16.239582 7.9212445e-39
328.24557 -649.65363 -22.819931 4.6047298e-39
327.22299 -647.62982 -28.923994 1.2867759e-39
328.24557 -649.65363 -35.980633 2.0221788e-39
328.24557 -649.65363 -42.560982 7.7274912e-39
328.24557 -649.65363 -49.141331 8.0959122e-39
328.24557 -649.65363 -55.72168 1.02265e-38
328.24557 -649.65363 -62.302032 1.3459466e-38
328.24557 -649.65363 -68.882378 1.0041388e-38
328.24557 -649.65363 -75.46273 8.1877477e-39
328.24557 -649.65363 -82.043083 1.0040666e-38
328.24557 -649.65363 -88.623428 1.3091044e-38
328.24557 -649.65363 -95.203781 1.3090684e-38
329.27457 -651.69019 -102.49031 1.2998848e-38
330.31003 -653.7395 -109.82267 1.2998489e-38
330.31003 -653.7395 -116.44441 1.2998489e-38
328.24557 -649.65363 -121.52518 1.3367629e-38
328.24557 -649.65363 -128.10553 1.2260923e-38
328.24557 -649.65363 -134.68588 1.3090685e-38
333.83456 -675.82611 278.62878 3.1303172e-39
322.35901 -652.59454 266.71545 3.4987396e-39
322.35901 -652.59454 260.13513 3.4987382e-39
322.35901 -652.59454 253.55476 3.8718914e-39
322.35901 -652.59454 246.97441 3.87189e-39
321.35477 -650.56158 240.02988 1.3459461e-38
320.35678 -648.5412 233.12846 1.2629705e-38
320.35678 -648.5412 226.58899 3.6875001e-39
320.35678 -648.5412 220.04951 3.964087e-39
319.36496 -646.53333 213.23132 1.1799946e-38
319.36496 -646.53333 206.7121 1.0970191e-38
320.35678 -648.5412 200.43108 1.1892502e-38
320.35678 -648.5412 193.8916 1.0693966e-38
320.35678 -648.5412 187.35211 1.1338971e-38
320.35678 -648.5412 180.81264 1.0877998e-38
319.36496 -646.53333 174.11594 1.1615556e-38
319.36496 -646.53333 167.59669 1.1062388e-38
317.39966 -642.55463 160.84615 1.097055e-38
315.45837 -638.62463 154.17818 1.1615559e-38
315.45837 -638.62463 147.73868 1.0601053e-38
318.37927 -644.53784 141.46411 6.2689609e-39
319.36496 -646.53333 135.00053 8.296892e-39
320.35678 -648.5412 128.49681 1.0785443e-38
320.35678 -648.5412 121.95734 1.1431168e-38
320.35678 -648.5412 115.41785 1.1062029e-38
320.35678 -648.5412 108.87838 1.0785801e-38
320.35678 -648.5412 102.3389 1.1431168e-38
320.35678 -648.5412 95.799423 1.1246779e-38
320.35678 -648.5412 89.259941 4.6094522e-39
321.35477 -650.56158 82.593468 4.1484782e-39
321.35477 -650.56158 76.033615 4.1484796e-39
322.35901 -652.59454 69.30497 4.1484796e-39
322.35901 -652.59454 62.724617 4.1484796e-39
322.35901 -652.59454 56.144268 4.1484796e-39
322.35901 -652.59454 49.563919 4.1484796e-39
320.35678 -648.5412 43.483597 4.1484782e-39
319.36496 -646.53333 37.212055 4.1484796e-39
319.36496 -646.53333 30.692823 4.2403151e-39
319.36496 -646.53333 24.173592 4.2403151e-39
319.36496 -646.53333 17.65436 4.2406739e-39
319.36496 -646.53333 11.135127 4.2403165e-39
319.36496 -646.53333 4.6158948 4.056284e-39
320.35678 -648.5412 -2.2927518 8.1978244e-39
321.35477 -650.56158 -9.2444429 7.7368533e-39
321.35477 -650.56158 -15.804293 7.5521019e-39
321.35477 -650.56158 -22.364143 5.8021884e-39
321.35477 -650.56158 -28.923994 1.2867759e-39
321.35477 -650.56158 -35.483845 1.6544767e-39
321.35477 -650.56158 -42.043694 7.7278499e-39
322.35901 -652.59454 -49.141331 8.188105e-39
322.35901 -652.59454 -55.72168 8.4672171e-39
322.35901 -652.59454 -62.302032 1.235204e-38
322.35901 -652.59454 -68.882378 1.1334646e-38
322.35901 -652.59454 -75.46273 8.2799419e-39
322.35901 -652.59454 -82.043083 8.5579707e-39
322.35901 -652.59454 -88.623428 1.1149173e-38
322.35901 -652.59454 -95.203781 1.0964063e-38
322.35901 -652.59454 -101.78413 1.1057338e-38
322.35901 -652.59454 -108.36448 1.0780032e-38
322.35901 -652.59454 -114.94483 1.0965142e-38
321.35477 -650.56158 -120.7619 1.0965863e-38
321.35477 -650.56158 -127.32175 1.105806e-38
322.35901 -652.59454 -134.68588 1.0595641e-38
316.44611 -655.48218 266.71545 3.1303172e-39
316.44611 -655.48218 260.13513 3.3143455e-39
316.44611 -655.48218 253.55476 3.5953017e-39
316.44611 -655.48218 246.97441 3.7793342e-39
314.48059 -651.41083 239.66794 3.6871372e-39
313.50699 -649.3941 232.78902 3.5034648e-39
313.50699 -649.3941 226.26979 3.87189e-39
312.53937 -647.38977 219.45345 3.4109118e-39
311.5777 -645.39783 212.67906 3.6874987e-39
311.5777 -645.39783 206.19995 3.6874987e-39
312.53937 -647.38977 199.95612 3.5953017e-39
313.50699 -649.3941 193.67363 3.5949429e-39
312.53937 -647.38977 186.9579 3.5953017e-39
311.5777 -645.39783 180.28349 3.9637268e-39
310.62195 -643.41809 173.65002 3.8715298e-39
309.67203 -641.45044 167.05714 3.6878574e-39
306.85684 -635.61908 160.28012 3.5953017e-39
305.92978 -633.69879 153.8073 3.6874973e-39
306.85684 -635.61908 147.51822 3.964087e-39
309.67203 -641.45044 141.29919 3.8718914e-39
311.5777 -645.39783 134.92969 3.7796929e-39
313.50699 -649.3941 128.48131 3.7796943e-39
313.50699 -649.3941 121.96207 3.5953017e-39
313.50699 -649.3941 115.44284 3.8718914e-39
313.50699 -649.3941 108.92361 3.87189e-39
313.50699 -649.3941 102.40438 3.87189e-39
313.50699 -649.3941 95.885147 3.5031074e-39
313.50699 -649.3941 89.365913 3.8718914e-39
312.53937 -647.38977 82.972115 3.964087e-39
313.50699 -649.3941 76.327446 3.9637268e-39
313.50699 -649.3941 69.80822 3.964087e-39
313.50699 -649.3941 63.288986 3.6878574e-39
312.53937 -647.38977 56.975674 3.8718914e-39
310.62195 -643.41809 50.924484 3.7796943e-39
308.72791 -639.49481 44.94709 4.0562826e-39
308.72791 -639.49481 38.527237 4.1484796e-39
309.67203 -641.45044 31.827932 3.9637268e-39
310.62195 -643.41809 25.087528 3.7796943e-39
311.5777 -645.39783 18.305643 3.7796943e-39
311.5777 -645.39783 11.82653 3.8715312e-39
312.53937 -647.38977 4.9827838 3.87189e-39
312.53937 -647.38977 -1.5163273 6.9078073e-39
313.50699 -649.3941 -8.4225702 7.8290461e-39
313.50699 -649.3941 -14.941802 7.4599063e-39
313.50699 -649.3941 -21.461035 6.8156173e-39
314.48059 -651.41083 -28.450665 1.103105e-39
314.48059 -651.41083 -34.990143 1.5626412e-39
315.4603 -653.44019 -42.043694 5.6105959e-39
315.4603 -653.44019 -48.603546 6.8105796e-39
315.4603 -653.44019 -55.163395 7.3641135e-39
315.4603 -653.44019 -61.723248 7.6403389e-39
315.4603 -653.44019 -68.283096 6.0712125e-39
315.4603 -653.44019 -74.842949 6.6254681e-39
315.4603 -653.44019 -81.402794 7.6417794e-39
315.4603 -653.44019 -87.962646 6.7187427e-39
316.44611 -655.48218 -95.203781 6.2556051e-39
316.44611 -655.48218 -101.78413 7.8243686e-39
316.44611 -655.48218 -108.36448 7.5467013e-39
315.4603 -653.44019 -114.20205 6.9928086e-39
314.48059 -651.41083 -120.00336 7.0864448e-39
314.48059 -651.41083 -126.54284 6.9038556e-39
315.4603 -653.44019 -133.88161 6.1659304e-39
321.561 -681.7514 278.62878 3.2221527e-39
310.50732 -658.31616 260.13513 3.4987396e-39
310.50732 -658.31616 253.55476 3.8718914e-39
308.5787 -654.22729 246.20743 3.964087e-39
306.67392 -650.18884 238.95079 1.115458e-38
305.73029 -648.18823 232.11639 9.0340941e-39
304.79248 -646.19995 225.32394 3.7796971e-39
304.79248 -646.19995 218.8647 3.964087e-39
302.01321 -640.30756 211.59467 6.3611551e-39
302.01321 -640.30756 205.19432 6.9139688e-39
303.86038 -644.22382 199.25458 6.4529906e-39
305.73029 -648.18823 193.24171 7.0979999e-39
303.86038 -644.22382 186.3756 7.3749413e-39
302.93399 -642.2597 179.76402 6.7295789e-39
301.09802 -638.36719 173.04201 7.7437239e-39
300.18835 -636.4386 166.53062 6.6370232e-39
299.28418 -634.52161 160.05847 7.5593354e-39
299.28418 -634.52161 153.71597 7.8362768e-39
299.28418 -634.52161 147.37346 7.2823884e-39
301.09802 -638.36719 141.13728 7.6511709e-39
303.86038 -644.22382 134.85971 8.0203079e-39
305.73029 -648.18823 128.45058 7.1905515e-39
305.73029 -648.18823 121.97147 7.5596941e-39
306.67392 -650.18884 115.46767 8.4812861e-39
307.62335 -652.20178 108.92361 8.3890891e-39
307.62335 -652.20178 102.40438 7.559334e-39
306.67392 -650.18884 95.970337 8.0203121e-39
306.67392 -650.18884 89.47123 5.4388499e-39
305.73029 -648.18823 83.096779 4.1488384e-39
305.73029 -648.18823 76.617668 4.1484796e-39
305.73029 -648.18823 70.138557 4.2403151e-39
305.73029 -648.18823 63.659439 4.2406753e-39
303.86038 -644.22382 57.585876 4.2406739e-39
302.01321 -640.30756 51.586159 4.2403151e-39
301.09802 -638.36719 45.423096 4.1484796e-39
300.18835 -636.4386 39.297276 4.1488398e-39
300.18835 -636.4386 32.935608 4.2403151e-39
301.09802 -638.36719 26.28026 4.2406753e-39
302.93399 -642.2597 19.267677 4.2406753e-39
303.86038 -644.22382 12.509474 4.1484796e-39
304.79248 -646.19995 5.7098098 4.0562826e-39
305.73029 -648.18823 -1.1316986 6.4471907e-39
305.73029 -648.18823 -7.6108127 8.1978258e-39
305.73029 -648.18823 -14.089927 7.6446549e-39
305.73029 -648.18823 -20.56904 7.3687896e-39
306.67392 -650.18884 -27.512772 7.3540284e-40
307.62335 -652.20178 -34.4995 1.37861e-39
308.5787 -654.22729 -41.529621 4.7927252e-39
308.5787 -654.22729 -48.069099 2.7655046e-39
308.5787 -654.22729 -54.608578 4.5172201e-39
308.5787 -654.22729 -61.148056 1.1615554e-38
308.5787 -654.22729 -67.687531 1.1154578e-38
308.5787 -654.22729 -74.227013 3.6874609e-39
308.5787 -654.22729 -80.766487 2.0279409e-39
308.5787 -654.22729 -87.305969 9.8645582e-39
308.5787 -654.22729 -93.845444 9.0344388e-39
308.5787 -654.22729 -100.38493 9.0344388e-39
308.5787 -654.22729 -106.9244 8.9415258e-39
307.62335 -652.20178 -112.73029 1.0877991e-38
306.67392 -650.18884 -118.50033 9.0344388e-39
306.67392 -650.18884 -124.99944 9.6798097e-39
307.62335 -652.20178 -132.28798 1.0325178e-38
327.02625 -709.90216 291.4216 2.484952e-39
307.42529 -667.35284 274.71356 3.038123e-39
303.59445 -659.03693 259.70941 2.3009167e-39
302.65161 -656.99023 252.7469 3.9637268e-39
300.78339 -652.93469 245.44989 3.6875015e-39
298.93808 -648.92902 238.24242 1.2721541e-38
297.1153 -644.97211 231.12285 1.2721901e-38
294.42242 -639.1264 223.78564 3.9640884e-39
294.42242 -639.1264 217.42397 4.0562826e-39
292.65411 -635.28784 210.53633 1.3182878e-38
292.65411 -635.28784 204.21288 1.2814097e-38
293.53558 -637.20135 198.11351 1.2814097e-38
295.31461 -641.06317 192.18484 1.2905932e-38
294.42242 -639.1264 185.61563 1.2905932e-38
294.42242 -639.1264 179.25397 1.2906292e-38
293.53558 -637.20135 172.74348 1.2906651e-38
293.53558 -637.20135 166.40099 1.2998487e-38
291.77789 -633.3858 159.83949 1.3090323e-38
291.77789 -633.3858 153.53496 1.3090323e-38
292.65411 -635.28784 147.30174 1.3090682e-38
293.53558 -637.20135 141.03096 1.3182519e-38
297.1153 -644.97211 134.82504 1.3274715e-38
298.0239 -646.94452 128.42023 1.3274713e-38
298.0239 -646.94452 121.98074 1.3366909e-38
298.93808 -648.92902 115.51688 1.336691e-38
299.85791 -650.92572 109.01324 1.336691e-38
299.85791 -650.92572 102.53413 1.336691e-38
298.93808 -648.92902 96.13916 1.336691e-38
298.93808 -648.92902 89.679916 6.6373833e-39
298.0239 -646.94452 83.343826 4.148481e-39
298.0239 -646.94452 76.904335 4.1488384e-39
298.0239 -646.94452 70.464851 4.2406739e-39
296.21222 -643.01172 64.386841 4.148481e-39
295.31461 -641.06317 58.184986 4.148481e-39
294.42242 -639.1264 52.020611 4.1484796e-39
294.42242 -639.1264 45.658943 4.2406753e-39
293.53558 -637.20135 39.550861 4.2406739e-39
293.53558 -637.20135 33.208355 4.2403165e-39
293.53558 -637.20135 26.865849 4.2403165e-39
293.53558 -637.20135 20.523344 4.2403165e-39
295.31461 -641.06317 13.51837 4.1484782e-39
295.31461 -641.06317 7.137424 4.056284e-39
298.0239 -646.94452 -0.36949861 5.4341219e-39
298.93808 -648.92902 -7.2086687 8.3825786e-39
298.93808 -648.92902 -13.667908 7.828686e-39
298.93808 -648.92902 -20.127148 7.5535396e-39
299.85791 -650.92572 -27.048155 4.5917748e-40
300.78339 -652.93469 -34.011883 9.1907383e-40
301.7146 -654.95618 -41.01873 2.8577002e-39
301.7146 -654.95618 -47.537964 3.7796551e-39
301.7146 -654.95618 -54.057194 3.04209e-39
301.7146 -654.95618 -60.576427 1.3827887e-38
301.7146 -654.95618 -67.095657 1.3459465e-38
301.7146 -654.95618 -73.614891 3.6842098e-40
301.7146 -654.95618 -80.134125 6.4572674e-40
301.7146 -654.95618 -86.653358 1.438142e-38
301.7146 -654.95618 -93.172592 1.355166e-38
300.78339 -652.93469 -99.002991 1.355166e-38
300.78339 -652.93469 -105.50211 1.3459466e-38
300.78339 -652.93469 -112.00121 1.3459465e-38
298.93808 -648.92902 -117.01574 1.3459106e-38
298.93808 -648.92902 -123.47498 1.3459466e-38
298.93808 -648.92902 -129.93422 1.3459466e-38
301.7146 -654.95618 -138.80722 1.3459465e-38
301.37958 -670.1048 274.71356 2.0246955e-39
297.62405 -661.75458 266.26929 2.4856709e-39
292.16309 -649.6123 257.20996 2.3938438e-39
290.38699 -645.66333 249.9967 3.964087e-39
290.38699 -645.66333 243.59637 3.8718914e-39
289.50705 -643.70673 236.85146 1.2629705e-38
287.76303 -639.82898 229.82603 1.27219e-38
286.89886 -637.90759 223.18324 3.964087e-39
286.89886 -637.90759 216.85979 3.9644471e-39
286.03989 -635.99768 210.27571 1.2998128e-38
286.03989 -635.99768 203.97118 1.2905934e-38
286.89886 -637.90759 197.8894 1.2905932e-38
286.89886 -637.90759 191.56595 1.2906292e-38
287.76303 -639.82898 185.4285 1.2998487e-38
287.76303 -639.82898 179.086 1.1615559e-38
286.89886 -637.90759 172.59558 1.2906292e-38
286.03989 -635.99768 166.14401 1.1062388e-38
286.03989 -635.99768 159.83949 1.3090684e-38
286.03989 -635.99768 153.53496 1.3090682e-38
286.03989 -635.99768 147.23044 1.3182878e-38
286.89886 -637.90759 140.97827 1.3182879e-38
289.50705 -643.70673 134.75633 1.3274715e-38
291.27234 -647.63177 128.40518 1.3275073e-38
291.27234 -647.63177 121.98534 1.3366909e-38
289.50705 -643.70673 115.61349 1.3366909e-38
289.50705 -643.70673 109.23255 1.3367269e-38
290.38699 -645.66333 102.78888 1.3367269e-38
290.38699 -645.66333 96.388542 1.336691e-38
290.38699 -645.66333 89.988197 7.4667796e-39
289.50705 -643.70673 83.708771 4.2403151e-39
289.50705 -643.70673 77.327827 4.2403165e-39
288.63242 -641.76202 71.105614 5.9916552e-39
288.63242 -641.76202 64.743942 8.4805546e-39
287.76303 -639.82898 58.578381 8.7571373e-39
286.89886 -637.90759 52.449844 4.3328695e-39
286.89886 -637.90759 46.126385 4.1484796e-39
286.89886 -637.90759 39.802925 4.2406753e-39
286.03989 -635.99768 33.748951 4.2406753e-39
286.03989 -635.99768 27.444426 4.2406753e-39
286.89886 -637.90759 20.832546 4.2406753e-39
287.76303 -639.82898 14.180838 4.1484796e-39
287.76303 -639.82898 7.8383312 4.1481209e-39
289.50705 -643.70673 0.75647867 5.0657066e-39
290.38699 -645.66333 -6.0169058 8.5666083e-39
290.38699 -645.66333 -12.417246 8.1052715e-39
290.38699 -645.66333 -18.817587 7.9216019e-39
292.16309 -649.6123 -26.127443 9.1835496e-41
293.05927 -651.60498 -33.045628 0
293.961 -653.60992 -40.006382 4.4253846e-39
294.86829 -655.62726 -47.010105 7.5593116e-39
294.86829 -655.62726 -53.509216 6.6373567e-39
294.86829 -655.62726 -60.008327 1.3736052e-38
294.86829 -655.62726 -66.507439 1.2260924e-38
293.961 -653.60992 -72.401955 5.8997916e-39
293.961 -653.60992 -78.881065 6.5455198e-39
293.961 -653.60992 -85.360176 1.3182879e-38
293.961 -653.60992 -91.839294 1.3643856e-38
293.05927 -651.60498 -97.638016 1.355166e-38
293.05927 -651.60498 -104.09726 1.355166e-38
292.16309 -649.6123 -109.84077 1.3459466e-38
290.38699 -645.66333 -114.82269 1.1800305e-38
290.38699 -645.66333 -121.22303 1.3367271e-38
288.63242 -641.76202 -126.10609 1.0970187e-38
288.63242 -641.76202 -132.46776 1.3551662e-38
288.63242 -641.76202 -138.82942 1.3459466e-38
294.38058 -670.68634 274.23801 2.301281e-39
281.96695 -642.40436 261.53857 2.301281e-39
281.96695 -642.40436 255.19606 2.9473875e-39
280.2785 -638.55762 248.10287 3.964087e-39
281.12018 -640.47522 242.15363 3.5953073e-39
281.12018 -640.47522 235.83017 1.3182878e-38
281.12018 -640.47522 229.50671 1.2814097e-38
280.2785 -638.55762 222.88477 4.0562826e-39
279.44186 -636.65149 216.30235 4.0562826e-39
279.44186 -636.65149 210.01663 1.2813738e-38
279.44186 -636.65149 203.73093 1.2906292e-38
279.44186 -636.65149 197.44522 1.3090684e-38
280.2785 -638.55762 191.36212 1.3090682e-38
280.2785 -638.55762 185.0576 1.3090682e-38
280.2785 -638.55762 178.75307 8.3890792e-39
279.44186 -636.65149 172.3024 1.2721903e-38
279.44186 -636.65149 166.01669 1.1615559e-38
278.6102 -634.75671 159.62311 1.3090682e-38
279.44186 -636.65149 153.44527 1.3090684e-38
279.44186 -636.65149 147.15956 1.3182879e-38
280.2785 -638.55762 140.9259 1.3182879e-38
282.81879 -644.34515 134.72229 1.3275073e-38
283.67581 -646.29773 128.37538 1.336691e-38
283.67581 -646.29773 121.99445 1.336691e-38
282.81879 -644.34515 115.63728 1.3459105e-38
282.81879 -644.34515 109.27562 1.3459106e-38
282.81879 -644.34515 102.91395 1.3459106e-38
282.81879 -644.34515 96.552284 1.3367269e-38
282.81879 -644.34515 90.190613 7.1905529e-39
281.96695 -642.40436 83.948402 4.2406739e-39
281.96695 -642.40436 77.605896 5.5310399e-39
281.96695 -642.40436 71.26339 1.0692869e-38
281.96695 -642.40436 64.920883 3.3183154e-39
281.12018 -640.47522 58.773304 4.0562378e-39
281.12018 -640.47522 52.449844 1.0877258e-38
280.2785 -638.55762 46.358006 3.4112817e-39
280.2785 -638.55762 40.053478 4.2403165e-39
279.44186 -636.65149 34.01683 4.2403165e-39
279.44186 -636.65149 27.731123 4.3325108e-39
279.44186 -636.65149 21.445415 4.3325108e-39
280.2785 -638.55762 14.835371 4.2403165e-39
281.12018 -640.47522 8.1856279 4.1484796e-39
281.96695 -642.40436 1.4958252 4.5136244e-39
282.81879 -644.34515 -5.2343988 8.9350307e-39
282.81879 -644.34515 -11.596066 8.1978272e-39
282.81879 -644.34515 -17.957735 8.0137961e-39
282.81879 -644.34515 -24.319403 0
283.67581 -646.29773 -31.148249 9.219563e-41
284.53806 -648.26215 -38.018608 1.6591584e-39
285.40555 -650.23859 -44.930859 5.5317378e-40
285.40555 -650.23859 -51.350712 5.0700324e-39
286.27835 -652.22705 -58.324875 1.3827887e-38
285.40555 -650.23859 -64.190422 1.1338609e-38
285.40555 -650.23859 -70.610275 2.8580603e-39
283.67581 -646.29773 -75.814865 4.6097675e-40
283.67581 -646.29773 -82.195816 8.1124854e-39
282.81879 -644.34515 -87.936081 1.3643856e-38
282.81879 -644.34515 -94.297745 1.3643497e-38
282.81879 -644.34515 -100.65942 1.3736052e-38
282.81879 -644.34515 -107.02108 1.3643497e-38
281.96695 -642.40436 -112.66928 1.1339327e-38
281.96695 -642.40436 -119.01179 1.3367271e-38
281.96695 -642.40436 -125.35429 9.4032214e-39
281.96695 -642.40436 -131.69681 1.3551662e-38
281.12018 -640.47522 -137.25394 1.355166e-38
279.51547 -652.79218 269.64197 3.406544e-39
274.49423 -641.06537 260.71191 2.9462875e-39
273.67484 -639.15173 254.01659 3.7775111e-39
273.67484 -639.15173 247.73088 4.0559225e-39
274.49423 -641.06537 241.79834 4.0559225e-39
274.49423 -641.06537 235.49382 1.2445316e-38
274.49423 -641.06537 229.18929 1.2905932e-38
273.67484 -639.15173 222.58806 4.0559239e-39
272.86032 -637.24951 216.02611 4.0562826e-39
272.86032 -637.24951 209.75911 1.3275073e-38
272.86032 -637.24951 203.49211 1.2998487e-38
272.86032 -637.24951 197.22511 1.1892145e-38
273.67484 -639.15173 191.15952 1.3090323e-38
273.67484 -639.15173 184.87381 1.2998847e-38
273.67484 -639.15173 178.5881 7.0061518e-39
272.86032 -637.24951 172.15712 1.2537511e-38
272.86032 -637.24951 165.89011 1.2168732e-38
272.86032 -637.24951 159.62311 1.3090684e-38
272.86032 -637.24951 153.35611 1.3182878e-38
273.67484 -639.15173 147.15956 1.3182878e-38
273.67484 -639.15173 140.87386 1.3274715e-38
276.1478 -644.92719 134.68845 1.3275073e-38
276.98209 -646.87561 128.36063 1.3275073e-38
276.1478 -644.92719 122.00344 1.3367269e-38
276.1478 -644.92719 115.66093 1.3459106e-38
276.1478 -644.92719 109.31843 1.3459463e-38
276.1478 -644.92719 102.97592 8.8500574e-39
276.1478 -644.92719 96.633415 1.3367271e-38
275.31854 -642.99048 90.390602 5.4392073e-39
275.31854 -642.99048 84.067139 4.2406753e-39
275.31854 -642.99048 77.743683 1.0785064e-38
275.31854 -642.99048 71.420219 2.212328e-39
275.31854 -642.99048 65.096764 1.3829316e-39
274.49423 -641.06537 58.96706 1.3832904e-39
274.49423 -641.06537 52.662533 4.3324631e-39
273.67484 -639.15173 46.588245 9.3103069e-39
273.67484 -639.15173 40.302536 4.2406753e-39
273.67484 -639.15173 34.01683 4.2406753e-39
272.86032 -637.24951 28.016113 4.2406753e-39
273.67484 -639.15173 21.445415 4.2403165e-39
273.67484 -639.15173 15.159707 4.2403151e-39
274.49423 -641.06537 8.5308437 4.1488398e-39
274.49423 -641.06537 2.2263172 4.1459321e-39
275.31854 -642.99048 -4.4612913 9.027225e-39
275.31854 -642.99048 -10.784751 8.1978272e-39
275.31854 -642.99048 -17.10821 8.1059917e-39
276.1478 -644.92719 -23.874199 0
276.1478 -644.92719 -30.216705 8.2975787e-40
276.1478 -644.92719 -36.559212 9.219563e-41
276.1478 -644.92719 -42.901718 3.6877972e-40
276.1478 -644.92719 -49.244225 7.5593116e-39
276.1478 -644.92719 -55.586727 1.1707751e-38
276.1478 -644.92719 -61.929234 1.1338968e-38
276.1478 -644.92719 -68.271744 8.665299e-39
276.1478 -644.92719 -74.61425 6.0841829e-39
276.1478 -644.92719 -80.956757 7.9280941e-39
275.31854 -642.99048 -86.666267 1.3828246e-38
275.31854 -642.99048 -92.989723 1.2998487e-38
276.1478 -644.92719 -99.984268 1.253751e-38
276.1478 -644.92719 -106.32677 1.3643856e-38
276.1478 -644.92719 -112.66928 1.2168729e-38
276.1478 -644.92719 -119.01179 1.2814097e-38
276.1478 -644.92719 -125.35429 1.1431524e-38
276.1478 -644.92719 -131.69681 1.3551662e-38
276.98209 -646.87561 -138.82942 1.3552021e-38
290.42596 -695.58551 285.44339 2.6693419e-39
268.6875 -643.52069 267.01645 2.301281e-39
267.88544 -641.59973 260.30231 2.3012796e-39
267.08817 -639.69025 253.62811 3.5949373e-39
267.08817 -639.69025 247.36111 4.0559225e-39
267.88544 -641.59973 241.44518 3.4109174e-39
267.88544 -641.59973 235.15947 1.2260924e-38
267.88544 -641.59973 228.87376 1.2905932e-38
267.08817 -639.69025 222.29311 4.0562826e-39
267.08817 -639.69025 216.02611 4.056284e-39
267.08817 -639.69025 209.75911 1.3182876e-38
267.08817 -639.69025 203.49211 1.2998488e-38
267.08817 -639.69025 197.22511 7.7437126e-39
267.08817 -639.69025 190.95811 1.3090682e-38
267.08817 -639.69025 184.69112 1.3090684e-38
267.08817 -639.69025 178.42412 8.2046894e-39
267.08817 -639.69025 172.15712 1.235312e-38
267.08817 -639.69025 165.89011 1.2537513e-38
267.08817 -639.69025 159.62311 1.3182878e-38
267.08817 -639.69025 153.35611 1.3182879e-38
267.08817 -639.69025 147.08911 1.3274715e-38
267.88544 -641.59973 140.87386 1.3275075e-38
269.49435 -645.45319 134.65482 1.3367269e-38
270.30609 -647.39734 128.34595 1.336691e-38
269.49435 -645.45319 122.0079 1.3459105e-38
269.49435 -645.45319 115.68444 1.3459105e-38
269.49435 -645.45319 109.36098 1.3459465e-38
269.49435 -645.45319 103.03752 1.0324825e-38
269.49435 -645.45319 96.714058 1.3367271e-38
269.49435 -645.45319 90.390602 4.8860405e-39
268.6875 -643.52069 84.185165 4.2406753e-39
268.6875 -643.52069 77.880638 1.0416284e-38
268.6875 -643.52069 71.576111 3.963682e-39
268.6875 -643.52069 65.271584 1.3829316e-39
267.88544 -641.59973 59.15966 1.4747671e-39
267.88544 -641.59973 52.873951 2.4885575e-39
267.08817 -639.69025 46.817112 9.7712808e-39
267.08817 -639.69025 40.550114 4.2406753e-39
267.08817 -639.69025 34.283112 4.2406753e-39
267.08817 -639.69025 28.016113 4.2406753e-39
267.08817 -639.69025 21.749113 4.2406753e-39
267.08817 -639.69025 15.482113 4.2403151e-39
267.88544 -641.59973 8.8739996 4.1488384e-39
267.88544 -641.59973 2.5882924 4.1466622e-39
268.6875 -643.52069 -4.0782099 9.3038091e-39
268.6875 -643.52069 -10.382736 8.1974685e-39
268.6875 -643.52069 -16.687263 8.0137975e-39
268.6875 -643.52069 -22.991791 1.3814883e-39
269.49435 -645.45319 -29.755129 4.6061802e-40
269.49435 -645.45319 -36.07859 0
269.49435 -645.45319 -42.40205 2.2123308e-39
268.6875 -643.52069 -48.2099 3.7796551e-39
268.6875 -643.52069 -54.514423 9.1266345e-39
268.6875 -643.52069 -60.818951 1.0693959e-38
268.6875 -643.52069 -67.123482 1.1246412e-38
269.49435 -645.45319 -74.019348 3.2261212e-39
268.6875 -643.52069 -79.732536 4.3328275e-39
268.6875 -643.52069 -86.037064 1.4012278e-38
268.6875 -643.52069 -92.341583 1.3828247e-38
269.49435 -645.45319 -99.313187 1.0417013e-38
269.49435 -645.45319 -105.63664 1.3736052e-38
270.30609 -647.39734 -112.66928 1.2260924e-38
270.30609 -647.39734 -119.01179 1.2630064e-38
270.30609 -647.39734 -125.35429 1.1339327e-38
271.94431 -651.32098 -133.24338 1.3920443e-38
273.60251 -655.29242 -141.22867 1.3643856e-38
271.81067 -667.92084 278.42365 4.3270583e-39
262.85883 -645.92346 267.01645 3.682412e-39
262.07416 -643.99536 260.30231 2.4849506e-39
261.29419 -642.07867 253.62811 3.7793342e-39
261.29419 -642.07867 247.36111 3.9644471e-39
261.29419 -642.07867 241.09412 4.4247022e-39
261.29419 -642.07867 234.82712 9.4035885e-39
261.29419 -642.07867 228.56012 1.2906292e-38
261.29419 -642.07867 222.29311 4.056284e-39
260.51883 -640.1734 215.75153 4.0562826e-39
260.51883 -640.1734 209.50311 1.2998488e-38
261.29419 -642.07867 203.49211 1.2998488e-38
261.29419 -642.07867 197.22511 6.8221221e-39
261.29419 -642.07867 190.95811 1.3275073e-38
261.29419 -642.07867 184.69112 1.3182878e-38
261.29419 -642.07867 178.42412 6.4529794e-39
261.29419 -642.07867 172.15712 1.1892146e-38
260.51883 -640.1734 165.7643 1.2445677e-38
261.29419 -642.07867 159.62311 1.3274715e-38
261.29419 -642.07867 153.35611 1.3275073e-38
261.29419 -642.07867 147.08911 1.3275075e-38
262.07416 -643.99536 140.87386 1.336691e-38
263.64816 -647.86316 134.65482 1.3367269e-38
263.64816 -647.86316 128.33136 1.3367269e-38
262.85883 -645.92346 122.01233 1.3367269e-38
262.85883 -645.92346 115.7078 1.3459465e-38
262.85883 -645.92346 109.40327 1.3367271e-38
262.85883 -645.92346 103.09875 9.7720123e-39
263.64816 -647.86316 96.714058 1.3459465e-38
262.85883 -645.92346 90.489693 5.4388513e-39
262.07416 -643.99536 84.30249 4.2406753e-39
262.07416 -643.99536 78.016785 4.7016492e-39
262.07416 -643.99536 71.731071 1.0785066e-38
262.07416 -643.99536 65.445366 0
261.29419 -642.07867 59.351112 9.208759e-40
261.29419 -642.07867 53.084114 9.3102971e-39
261.29419 -642.07867 46.817112 6.5451821e-39
261.29419 -642.07867 40.550114 4.2406767e-39
261.29419 -642.07867 34.283112 4.2406753e-39
261.29419 -642.07867 28.016113 4.2406753e-39
261.29419 -642.07867 21.749113 4.1488398e-39
261.29419 -642.07867 15.482113 4.1488398e-39
261.29419 -642.07867 9.2151127 4.2406739e-39
261.29419 -642.07867 2.948113 4.1470251e-39
261.29419 -642.07867 -3.318887 9.211975e-39
262.07416 -643.99536 -9.9831228 8.1978272e-39
262.07416 -643.99536 -16.268829 8.0141562e-39
262.85883 -645.92346 -22.991791 2.3027243e-39
262.85883 -645.92346 -29.296318 9.2194229e-41
262.85883 -645.92346 -35.600845 1.8442671e-39
262.07416 -643.99536 -41.411659 7.4671159e-39
262.07416 -643.99536 -47.697369 6.6373567e-39
262.07416 -643.99536 -53.983074 8.3890708e-39
262.07416 -643.99536 -60.268784 1.087799e-38
262.85883 -645.92346 -67.123482 1.2629704e-38
262.85883 -645.92346 -73.428009 6.8217465e-39
262.85883 -645.92346 -79.732536 2.1201366e-39
262.85883 -645.92346 -86.037064 1.3736052e-38
262.85883 -645.92346 -92.341583 1.3920083e-38
262.85883 -645.92346 -98.646111 9.0340815e-39
263.64816 -647.86316 -105.63664 1.3736052e-38
263.64816 -647.86316 -111.96011 1.3920444e-38
264.44229 -649.81458 -119.01179 1.06936e-38
265.24121 -651.77777 -126.10609 1.0786154e-38
266.04498 -653.75287 -133.24338 1.3274715e-38
267.66721 -657.73914 -141.22867 1.3643856e-38
264.12579 -666.22565 277.47018 3.0377628e-39
256.24146 -646.33826 266.58801 3.3143483e-39
256.24146 -646.33826 260.30231 2.854452e-39
255.47884 -644.41467 253.62811 4.0566455e-39
255.47884 -644.41467 247.36111 4.0562826e-39
255.47884 -644.41467 241.09412 3.9637283e-39
255.47884 -644.41467 234.82712 1.2076176e-38
255.47884 -644.41467 228.56012 1.2445316e-38
254.72073 -642.50244 221.99992 4.0562826e-39
254.72073 -642.50244 215.75153 3.5034718e-39
254.72073 -642.50244 209.50311 1.3090323e-38
254.72073 -642.50244 203.25471 1.2998489e-38
254.72073 -642.50244 197.0063 1.2168371e-38
255.47884 -644.41467 190.95811 1.3182878e-38
255.47884 -644.41467 184.69112 1.3182878e-38
255.47884 -644.41467 178.42412 7.2823842e-39
254.72073 -642.50244 172.0127 1.3551662e-38
254.72073 -642.50244 165.7643 1.2814098e-38
254.72073 -642.50244 159.51588 1.3275073e-38
255.47884 -644.41467 153.35611 1.3275075e-38
255.47884 -644.41467 147.08911 1.336691e-38
255.47884 -644.41467 140.82211 1.336691e-38
257.00864 -648.27344 134.62138 1.3459105e-38
257.00864 -648.27344 128.31685 1.3459105e-38
256.24146 -646.33826 122.01673 1.3459106e-38
256.24146 -646.33826 115.73103 1.3459106e-38
256.24146 -646.33826 109.44532 1.3459465e-38
256.24146 -646.33826 103.15961 1.3459465e-38
256.24146 -646.33826 96.873901 1.3367629e-38
256.24146 -646.33826 90.588196 5.5314071e-39
255.47884 -644.41467 84.419113 4.2406767e-39
255.47884 -644.41467 78.152115 4.2406767e-39
255.47884 -644.41467 71.885117 7.4667712e-39
255.47884 -644.41467 65.618111 1.069287e-38
255.47884 -644.41467 59.351112 1.069287e-38
